203.815  104.318  121.198
53.8974  84.6291  138.975
70.8824  136.856  116.034
39.7481  80.5794  110.191
191.102  74.5257  140.577
86.5498  149.103  143.278
119.393  87.1257  105.181
189.423  83.5619  132.888
75.1204  149.427  146.06
82.4249  143.771  107.468
99.3452  86.8792  110.873
75.2964  60.0119  140.397
138.776  149.3  121.076
51.4073  138  130.766
167.531  116.182  123.186
130.181  142.11  114.743
83.6392  139.179  103.272
28.6036  108.595  144.314
109.329  61.159  141.868
19.2502  84.684  130.762
62.1832  133.963  156.724
29.7415  62.8336  119.392
97.7467  119.049  124.654
80.8407  144.008  138.837
121.365  109.122  156.552
142.303  136.767  152.618
182.611  145.584  152.789
180.467  123.249  116.924
153.564  66.7067  154.9
66.7073  80.8395  146.019
191.483  137.018  112.914
129.276  111.729  126.377
76.9882  103.183  103.602
122.693  141.448  152.804
182.523  123.688  108.372
184.638  85.3232  139.224
203.111  88.5869  141.148
192.911  105.646  145.859
185.153  101.972  155.164
88.4977  127.441  108.495
134.936  137.265  143.277
41.3704  150.469  123.608
142.149  115.518  151.493
40.7643  121.742  109.711
81.6471  131.735  100.91
73.1229  124.555  102.298
82.8915  67.8622  152.267
160.053  64.7991  122.64
187.286  114.04  140.554
81.1506  74.1233  120.5
26.8721  140.577  122.001
63.3338  58.9333  131.655
104.572  128.338  114.421
83.6125  60.3496  136.396
86.5309  83.8422  161.86
188.528  98.8507  167.034
59.781  58.6495  137.181
134.171  141.096  157.983
15.4241  122.285  107.094
189.979  112.362  115.57
137.88  72.2561  108.295
173.458  128.305  103.566
125.81  102.872  121.355
82.2054  127.264  105.959
202.659  90.7653  147.434
156.868  90.0961  133.2
64.5488  131.071  125.78
20.0383  126.611  145.679
70.5582  126.426  142.385
58.8987  144.182  106.299
97.7989  72.7283  108.598
43.0308  130.561  118.328
162.937  129.021  153.595
149.386  61.6145  155.89
24.6359  92.6289  136.51
81.1941  146.672  113.422
131.855  123.342  128.868
11.1623  118.45  158.744
25.5745  90.2433  114.345
170.166  87.1379  162.095
97.4598  139.962  113.308
173.392  63.7042  111.865
31.4678  91.4132  124.387
191.584  115.703  166.01
21.9687  82.3699  121.599
99.1788  79.6107  129.748
175.69  114.248  134.13
130.585  123.176  106.958
124.503  134.543  156.566
180.943  116.248  139.203
172.23  139.587  123.026
139.021  107.785  154.128
109.191  90.0439  125.297
175.766  125.581  126.236
71.9258  141.384  112.431
17.6923  77.5093  149.975
187.027  111.643  167.072
49.8961  78.5187  166.372
69.0915  69.6254  111.391
148.275  126.18  150.087
103.516  84.0099  107.202
109.86  128.885  104.096
40.0136  109.183  140.471
69.6809  105.802  128.632
71.3553  108.494  156.481
83.4917  84.7935  156.595
103.115  64.75  158.602
178.51  137.15  122.953
100.436  88.6226  116.602
43.0176  122.787  137.11
75.1763  65.796  123.795
71.8877  144.624  107.753
27.7737  99.9344  151.441
78.4525  67.9598  119.556
56.0715  120.777  147.29
157.793  125.112  109.819
183.196  62.5828  126.167
123.334  139.031  137.024
12.7925  75.5083  146.971
6.49318  89.9674  130.336
58.8915  132.304  128.706
22.0823  112.731  120.356
44.636  86.1683  136.558
203.819  91.9406  129.327
9.99979  78.8797  129.703
130.252  91.8627  116.715
31.2448  143.398  132.648
201.79  126.898  136.597
49.8795  77.3126  108.51
29.8181  98.5698  157.824
185.895  140.867  132.691
28.185  72.7152  157.936
73.7239  65.3999  162.11
14.3061  128.376  158.821
197.778  118.35  143.094
89.7697  87.7327  105.004
135.901  87.2304  124.596
72.6852  135.477  168.292
131.102  136.94  161.09
92.8365  94.0701  121.241
31.4613  105.306  120.829
61.5003  148.453  155.546
164.331  134.53  114.236
63.6481  60.1637  149.372
184.467  108.576  154.626
154.893  140.994  103.807
92.2312  138.951  110.2
157.764  80.8975  105.112
62.3221  91.7694  132.144
62.4967  84.221  150.257
145.778  75.5572  141.652
64.935  71.9294  115.873
175.246  82.1609  142.052
73.6824  119.324  117.44
174.572  84.4849  125.79
89.4864  76.3076  136.184
55.2723  83.4998  144.729
120.597  73.8061  152.609
23.3041  118.7  130.33
144.049  81.3116  145.414
95.7162  78.8743  124.23
149.449  130.631  143.326
181.599  129.189  137.52
147.96  126.648  137.286
65.5725  89.9367  112.255
127.864  89.9399  147.971
105.999  71.7504  103.391
41.5142  75.4358  138.113
118.344  68.3604  144.177
18.8589  109.322  110.773
170.588  96.423  118.361
82.0082  87.2086  138.896
182.806  130.719  166.578
174.462  81.025  152.928
126.248  133.577  163.648
30.0893  79.2325  102.979
47.8812  140.859  141.383
164.906  150.357  148.595
74.4474  86.3948  108.11
144.904  59.7129  124.199
5.49304  98.8502  142.813
53.0471  68.581  140.701
178.37  70.2186  155.154
191.859  115.161  151.495
113.487  62.1822  119.819
62.7332  137.651  107.601
131.79  110.54  144.275
119.507  141.501  114.674
89.9772  134.49  162.571
120.943  67.7475  149.834
171.781  73.8755  150.484
30.3653  66.9552  136.778
176.247  98.5757  150.525
113.754  143.06  124.587
92.0033  87.7322  143.946
56.9908  139.645  103.15
147.899  80.3864  137.219
145.304  66.4391  105.913
30.8335  89.173  144.592
33.3835  127.372  136.614
68.5852  137.12  129.611
132.31  126.919  122.849
48.2321  137.579  124.413
168.504  134.154  123.759
145.201  117.165  126.814
83.5136  90.9798  129.557
165.657  80.8333  158.722
72.906  129.564  137.016
38.5894  59.5287  143.765
161.286  127.793  163.777
88.5753  95.2195  161.09
106.646  82.4789  164.534
28.9553  127.811  144.756
197.139  84.7132  141.032
22.4717  100.997  167.089
178.946  116.07  150.029
164.767  75.3441  142.664
182.449  75.5191  147.691
162.404  85.5755  132.1
68.5097  94.1439  115.145
158.311  74.8712  167.327
129.512  89.636  123.589
34.449  132.063  145.287
188.729  130.211  137.246
140.836  127.958  102.449
75.8556  136.076  155.156
31.3256  95.5911  114.332
54.2875  73.4498  115.053
35.8613  150.167  127.167
34.1865  107.127  137.179
39.2479  117.141  113.25
123.071  78.6804  150.402
114.604  65.3842  160.211
183.651  117.037  161.754
113.869  142.497  106.533
36.073  79.7166  114.774
193.413  108.839  139.581
52.9273  135.556  113.795
80.8328  74.9206  163.174
15.7186  133.438  156.681
57.6845  128.874  157.222
84.2108  136.654  121.935
120.074  142.232  105.987
159.564  90.3006  138.734
62.7796  125.334  120.614
47.5987  137.469  161.441
156.979  85.1218  110.24
24.6892  129.955  119.423
154.931  130.703  166.311
72.447  146.797  157.828
139.216  86.4468  166.273
145.884  139.104  109.346
72.6617  137.668  122.815
189.371  90.5116  103.481
127.694  139.406  109.802
85.29  113.022  145.022
9.85979  99.7228  158.485
43.3489  90.1003  154.683
12.1304  129.924  153.001
7.74277  101.858  115.983
147.048  139.864  145.038
165.048  145.977  136.541
72.9548  123.35  136.809
74.8242  113.26  116.706
194.531  112.082  112.145
22.9553  103.648  137.349
79.606  112.645  132.128
71.8363  59.57  135.689
95.6477  66.4167  137.778
187.096  69.5784  111.992
90.7934  119.435  108.275
100.881  119.471  130.182
201.401  127.523  130.143
60.0973  88.346  115.347
166.536  75.9049  132.192
184.392  130.511  152.407
59.7731  131.651  121.706
159.102  133.83  124.75
132.269  88.8136  129.859
184.991  132.425  146.271
173.729  75.2859  155.998
30.9848  93.3822  130.335
197.201  88.6956  125.03
96.6231  69.5906  114.15
72.6275  132.738  149.056
15.3681  139.813  139.826
30.5538  131.395  139.996
114.719  67.1019  149.028
21.8493  76.5195  163.416
173.544  64.9126  126.476
22.9721  101.318  102.951
154.547  63.0637  159.775
124.04  77.8751  141.114
78.06  130.632  152.04
59.7419  77.5983  161.567
170.022  69.3158  125.02
117.311  148.675  145.065
147.913  118.706  143
71.0577  60.9785  119.592
76.7793  121.533  148.785
95.4986  142.644  146.887
63.1821  75.3809  144.319
191.588  120.05  141.852
34.2317  59.779  132.434
131.123  136.153  114.13
184.426  130.717  132.205
77.6168  94.2142  107.684
165.664  123.469  143.673
92.6079  87.3208  123.415
180.308  73.3787  125.652
16.5845  77.6021  131.029
32.9089  130.28  108.653
187.316  108.951  143.989
158.069  73.3622  114.056
175.064  103.067  131.219
164.048  89.0772  116.335
115.221  118.189  150.45
31.3236  95.2464  105.536
157.337  143.029  114.545
82.475  102.633  157.1
201.3  91.0369  117.07
110.947  121.036  153.464
6.49646  96.4038  147.961
140.286  110.162  149.073
77.4917  148.299  118.543
151.249  120.506  148.099
34.7003  96.4174  125.584
12.5855  123.681  138.226
43.682  86.6579  146.445
108.299  71.2476  138.255
186.431  134.77  156.513
126.968  67.5601  151.278
194.244  106.9  104.852
64.7345  116.75  130.573
48.549  59.0886  124.08
93.9376  81.0668  116.607
44.0027  64.8318  148.687
105.253  129.964  166.276
75.9098  131.291  126.134
10.729  124.067  155.016
21.6737  70.6503  142.505
182.816  61.8882  132.226
20.7278  113.87  154.935
11.1657  78.6418  122.67
148.275  138.394  150.898
140.773  100.053  126.916
92.9158  115.148  125.498
195.764  109.768  151.158
103.109  67.3796  147.051
121.001  72.5986  109.628
35.4901  143.646  143.664
73.7139  123.605  160.349
195.579  82.6956  128.171
75.8668  87.2552  162.44
116.577  125.137  153.687
45.1121  120.089  152.44
170.63  101.386  145.915
162.657  149.121  115.958
175.469  125.641  138.563
90.9632  119.31  161.323
161.569  140.179  160.085
139.979  81.4106  167.971
153.863  126.087  128.409
86.9266  66.482  143.291
101.464  87.5955  156.223
64.2317  127.699  157.881
83.58  120.538  167.812
34.1237  65.6986  132.436
183.136  63.814  150.055
71.6565  78.6417  101.431
65.0209  116.753  140.83
131.723  143.499  121.17
152.827  89.9801  128.668
93.7639  86.3266  116.668
42.4338  131.791  103.275
120.934  102.619  116.323
123.48  130.259  121.604
152.229  73.2603  102.465
13.9051  116.985  107.302
166.736  129.23  158.91
95.1217  75.8562  113.698
115.558  122.754  161.991
58.1742  84.714  126.157
178.873  85.8432  117.66
72.5089  78.1222  147.901
10.8409  98.3138  125.467
36.9718  132.703  139.415
26.6101  84.946  102.916
21.9024  142.379  153.007
132.093  68.4639  115.138
143.89  135.77  162.914
141.779  59.2688  135.136
132.004  82.5506  146.516
26.3118  139.182  162.187
119.819  97.4739  153.155
25.5841  134.665  137.604
117.096  122.635  131.195
89.3644  75.2527  168.06
33.9666  115.69  152.071
26.444  87.9318  156.493
34.0751  109.72  126.34
175.184  118.066  128.462
124.266  70.785  166.617
127.546  66.1479  131.952
16.8123  102.647  123.271
153.806  67.0922  164.943
42.6223  151.08  142.445
143.643  126.66  146.425
174.381  81.6584  166.594
193.717  104.027  128.68
33.3843  68.6859  114.882
173.165  88.5458  152.158
36.3157  136.544  109.015
11.6855  107.152  148.406
139.104  90.9535  130.755
95.0981  142.706  163.311
22.5375  105.999  161.743
85.9943  93.2139  165.624
171.336  85.2245  138.143
93.2046  67.8365  143.376
70.5324  75.8348  163.465
146.552  76.7469  102.175
126.858  97.9806  113.187
180.787  126.141  162.212
67.782  78.2158  106.946
145.328  84.9787  154.147
123.729  93.4765  151.563
18.9608  120.897  125.669
180.274  68.313  161.599
79.1243  126.292  158.196
41.1735  151.184  130.834
99.9349  68.4657  152.345
196.899  97.5172  152.151
109.973  139.031  103.663
82.2752  88.0483  162.606
71.2469  87.4648  157.173
26.2702  103.737  117.381
128.931  149.774  133.162
97.1229  73.8386  151.233
60.1196  85.4505  138.023
34.6834  100.816  136.529
35.0114  105.23  111.688
59.0383  125.888  107.242
203.769  109.836  148.049
179.877  139.573  115.567
83.9861  149.581  137.621
118.194  83.4157  160.046
75.876  78.7218  163.202
46.8274  75.5003  142.481
117.04  94.0128  148.895
109.696  119.251  134.381
122.065  125.285  126.179
180.89  71.4291  132.401
110.338  83.0838  154.727
44.7378  149.097  153.747
122.026  82.3062  116.449
91.4171  116.655  113.859
38.6211  121.705  124.616
150.755  71.23  145.252
28.2889  133.761  116.926
138.135  79.8064  147.062
145.305  126.411  156.021
80.6591  91.4415  116.121
133.22  106.654  154.878
51.9706  151.249  126.768
35.4304  137.923  131.408
66.3501  123.848  126.122
56.7034  90.1021  135.46
24.5847  102.912  155.507
48.5592  151.343  142.253
59.2557  119.435  130.643
120.364  75.5693  128.465
12.265  108.189  162.111
35.8006  90.3147  115.161
126.781  84.303  120.421
163.769  135.05  134.65
33.6443  124.305  120.324
145.576  122.571  161.185
129.046  138.375  140.309
35.6406  95.4684  160.096
164.291  72.9962  167.114
127.875  80.509  106.439
130.58  101.055  125.878
175.279  70.6435  135.648
188.377  80.455  138.497
160.818  130.893  159.719
26.6423  134.284  123.694
89.7592  131.502  156.636
114.483  143.59  131.04
124.876  142.625  118.869
23.8591  68.5022  157.426
158.674  139.684  151.351
169.244  116.707  116.868
44.0192  129.424  138.632
95.9049  136.718  151.234
140.568  103.086  132.508
74.6392  88.202  141.278
139.785  103.667  121.329
114.893  137.852  115.886
152.748  83.7577  125.378
28.5958  70.8116  152.767
177.412  121.354  122.414
140.279  139.281  140.567
65.2147  60.4302  119.91
73.6055  149.337  122.494
102.651  83.2167  153.476
175.823  107.029  141.698
69.2862  99.8997  125.679
150.513  147.81  157.613
135.241  121.245  102.539
46.0077  69.7834  139.65
196.161  105.843  113.742
167.079  86.2574  148.775
11.0383  104.329  137.256
25.0733  108.933  154.65
90.3189  104.684  138.411
71.775  144.621  130.505
77.0735  102.774  150.161
75.7744  132.198  143.595
143.036  126.521  121.035
119.086  82.6508  109.864
28.8387  74.4134  121.041
24.8079  98.7576  120.646
25.0887  84.6423  127.487
42.8616  91.0771  116.73
109.313  75.6406  155.931
25.4332  69.3555  147.824
180.485  91.2126  117.865
126.853  74.2104  107.858
78.714  131.973  136.804
13.2815  85.4863  140.442
59.9278  132.699  167.388
107.852  119.85  140.326
103.894  83.0101  118.415
153.683  89.471  145.959
176.566  142.688  151.176
128.169  83.2348  158.267
116.746  128.001  127.867
24.9987  97.5518  114.518
111.276  68.9775  105.11
49.1209  76.5469  124.931
198.633  91.2505  141.906
98.2979  75.7765  134.506
79.0138  137.373  125.019
155.366  124.69  135.452
167.878  89.0763  134.03
195.08  92.6347  154.077
110.494  67.0311  128.332
81.3503  142.177  151.994
187.732  105.316  167.077
129.942  97.9425  107.719
184.787  94.1499  132.957
178.257  120.917  159.268
69.1199  149.647  147.898
174.075  123.451  154.445
25.0237  87.9718  141.3
151.427  87.0656  112.818
18.1056  75.8351  143.945
126.249  135.734  150.621
75.3209  60.5407  145.708
106.918  62.0979  120.828
138.278  95.2194  162.055
124.142  126.646  155.899
83.8017  65.2484  109.171
123.007  61.1934  124.382
143.603  121.736  134.971
23.292  66.0348  151.187
154.946  132.21  159.214
188.714  128.095  148.289
153.921  76.9076  148.302
203.584  97.0187  147.873
101.153  133.235  167.419
196.849  89.6066  148.957
85.455  86.3755  133.18
148.1  144.634  128.492
15.7664  110.51  129.2
123.736  106.156  162.347
64.9068  63.7546  109.646
90.1347  103.543  144.855
80.8682  84.952  101.029
154.855  138.737  124.443
112.31  61.7517  147.318
131.82  106.641  122.92
87.9293  91.7957  140.119
36.055  123.311  105.467
31.504  103.935  154.481
121.496  60.8894  141.958
149.326  133.473  137.13
56.3639  119.968  136.155
19.4664  73.4345  158.881
115.624  78.7943  132.246
126.169  114.213  111.102
51.921  126.769  107.455
124.739  111.883  149.906
65.9408  146.445  159.834
6.61989  119.741  128.156
79.5681  125.383  126.158
75.1073  85.3743  101.693
155.27  74.2801  161.938
45.2619  145.21  145.321
110.753  67.3505  121.816
171.591  130.167  128.794
114.689  84.1677  105.185
28.1353  125.917  167.098
172.833  101.246  115.996
60.9115  144.211  150.495
191.304  94.23  134.81
194.477  139.535  142.905
91.8212  112.225  131.431
200.358  81.2078  125.161
129.451  86.4215  106.56
109.524  85.3278  108.419
144.565  92.3359  120.506
12.0935  100.22  149.674
130.337  144.651  108.567
40.707  134.854  135.464
96.9339  64.9391  159.277
121.051  130.617  168.162
128.279  149.037  145.749
135.761  83.2123  140.976
156.221  71.0442  146.649
181.091  85.4995  144.15
21.9995  80.0591  141.972
165.679  129.182  133.578
169.054  91.7437  114.599
81.0835  133.003  147.026
77.3787  76.1806  107.412
63.2959  149.821  149.613
12.2655  85.9383  111.832
49.2388  132.969  103.174
122.205  65.4152  139.956
38.2844  85.2021  105.692
23.6008  140.992  157.952
68.5387  70.5465  141.433
181.061  135.986  134.797
36.3572  59.4151  138.16
11.0139  104.452  125.801
168.089  87.5336  109.782
156.979  83.6909  162.018
141.454  88.7608  136.152
146.994  144.085  121.058
163.451  143.246  116.697
137.949  145.143  129.216
198.866  76.6327  129.377
19.5971  79.65  155.46
22.768  136.719  118.432
183.746  70.934  107.752
80.3482  82.3543  163.916
19.756  69.5965  153.469
178.12  131.413  102.957
185.097  120.336  113.602
164.182  143.078  164.325
126.462  86.286  168.369
174.381  146.122  111.976
47.6454  126.159  118.683
53.1691  120.216  141.54
152.391  58.5754  137.74
59.4187  81.6867  104.65
130.402  69.2409  165.81
190.714  86.1077  165.258
200.095  96.7717  158.125
205.201  105.101  137.086
127.612  91.1811  134.874
35.9926  126.877  147.837
142.892  115.741  121.533
20.9825  79.9696  134.636
110.139  136.974  125.307
77.8459  138.796  135.088
67.2367  76.3233  112.485
190.123  110.116  155.775
55.4035  151.511  132.646
110.253  137.814  131.599
77.1771  82.52  157.858
28.8569  96.0005  146.609
138.936  111.379  112.327
86.2051  69.0265  112.155
126.466  133.68  117.827
133.491  132.52  118.513
105.928  134.597  114.342
110.276  132.468  167.349
143.878  81.1006  109.226
17.5144  97.8722  165.917
128.37  102.412  102.92
164.174  82.2164  152.962
51.8601  151.635  137.078
161.112  89.5316  121.689
37.9615  136.013  103.121
85.0174  102.065  128.227
117.683  80.4805  149.899
171.976  122.775  143.63
40.1642  134.572  114.503
188.236  74.9616  107.614
31.2409  110.764  154.679
24.9444  75.8894  129.755
191.722  77.4091  147.359
80.8703  109.181  167.358
67.3254  150.746  131.969
83.6342  104.817  165.843
69.7259  114.544  113.345
112.857  133.943  112.589
175.003  131.126  114.497
62.9298  128.4  103.922
94.3333  148.677  125.339
55.9508  82.8531  150.988
195.165  117.248  106.456
109.607  131.004  134.23
115.209  146.891  115.75
35.3676  117.944  140.912
88.9341  132.206  144.561
128.023  108.222  103.033
146.293  92.5374  130.953
175.89  136.988  152.531
97.6443  63.0474  116.144
90.199  78.2706  101.885
175.743  113.633  108.6
87.4529  134.674  101.783
173.726  71.7167  116.203
90.8377  112.895  119.738
152.368  88.04  153.553
183.064  77.6559  160.553
48.926  125.463  138.404
90.6508  70.0405  116.423
28.5472  124.359  156.381
9.48094  112.498  157.429
42.4585  81.1817  104.469
106.754  128.979  157.612
98.3855  72.3596  144.872
128.044  136.696  102.057
169.336  67.8095  114.007
134.859  89.1881  107.504
50.5891  138.861  103.094
140.922  100.248  138.522
83.7998  120.688  128.815
142.394  140.155  128.65
127.041  65.1292  109.296
50.7705  58.4668  130.11
81.2694  71.8964  108.897
41.6117  64.5815  142.318
176.273  126.978  108.891
28.5548  78.5743  150.242
79.3502  119.127  107.399
79.2484  98.698  139.254
135.46  86.0426  101.998
158.371  144.556  120.897
168.044  116.342  149.264
22.8353  102.162  130.866
63.0166  137.783  129.224
76.3254  149.879  129.158
76.0783  121.532  142.465
69.3614  141.613  156.227
76.9048  124.417  120.634
93.0339  141.846  152.937
168.148  65.065  108.252
76.4668  98.6525  155.197
61.4974  71.939  151.056
178.902  107.845  116.82
90.1623  85.2606  111.718
181.656  94.0523  123.584
20.0883  106.974  156.178
104.45  61.3362  126.379
107.609  88.1378  153.93
67.3109  142.795  150.587
148.823  84.0577  148.569
81.9836  75.3462  144.88
120.125  96.2676  113.773
153.674  65.1693  141.885
122.588  93.0162  105.84
148.803  124.442  143.452
134.271  79.169  127.881
25.0562  107.943  133.279
108.753  138.009  137.717
189.405  126.619  131.523
141.709  88.9722  125.169
178.415  63.2829  116.032
168  92.0119  152.904
141.508  82.9773  125.175
74.5945  147.023  113.249
81.8883  60.3734  130.838
83.42  132.309  163.693
171.47  145.842  140.856
48.7476  151.605  131.976
173.659  70.2869  159.473
153.091  128.59  115.46
88.9871  97.6327  112.089
164.886  130.03  127.24
13.1689  113.95  162.525
183.195  127.166  126.775
37.2775  114.467  157.57
111.894  148.911  141.217
171.449  79.6442  129.161
164.522  128.174  115.253
87.195  117.775  146.438
160.207  79.7781  111.904
194.569  102.861  137.909
95.7194  122.304  109.715
139.27  149.757  146.248
193.154  132.338  110.562
179.774  66.4932  110.448
134.723  94.6346  156.819
142.002  128.607  126.289
62.2514  138.289  167.341
159.112  134.293  108.657
101.831  136.936  139.052
144.171  61.1427  152.962
106.337  121.829  116.694
97.081  72.8832  119.836
138.835  130.766  163.458
85.9485  84.2293  147.856
78.0897  60.0313  135.664
124.539  104.348  106.247
149.509  137.75  102.549
133.767  148.294  118.15
147.129  65.6385  121.635
69.7016  96.0161  155.702
103.646  120.565  123.61
31.1492  89.3231  110.971
164.088  86.3438  126.387
26.2124  115.301  135.325
33.4757  101.66  148.209
34.2866  74.7069  151.812
39.751  85.4962  150.438
139.895  146.117  159.84
31.2761  76.7073  161.57
131.41  117.622  155.874
153.92  132.134  126.327
86.1556  128.004  101.608
30.607  139.823  153.139
27.9315  102.04  145.221
45.6514  126.19  132.397
95.119  73.0416  167.257
150.727  123.739  159.429
54.5704  134.882  102.529
29.1543  129.353  131.23
39.874  106.286  134.046
22.569  86.1344  151.425
159.55  69.2506  134.854
74.3848  87.4672  129.722
55.8588  120.607  125.021
75.3101  144.892  135.374
70.9895  94.0803  108.358
41.158  97.6512  138.738
104.856  134.773  107.861
139.007  62.1806  155.199
180.434  83.5244  167.072
104.746  133.759  161.793
23.6445  74.7653  153.501
126.951  106.216  151.399
80.3671  73.5381  150.919
60.7046  83.9878  119.931
9.12017  124.851  149.249
188.319  123.466  118.747
60.687  121.803  114.228
88.4838  92.0242  146.8
184.314  89.5118  127.969
146.172  88.9468  157.514
173.993  128.57  143.683
99.4368  78.6373  108.544
113.423  69.4101  165.278
168.857  85.7162  128.988
137.336  71.2473  147.364
21.0156  98.7671  125.704
84.1604  141.158  115.231
30.8781  108.667  115.471
32.4731  84.5468  103.477
109.892  141.991  149.014
171.682  118.847  159.78
78.0985  119.556  130.686
21.6644  110.77  138.23
116.232  84.692  154.284
87.866  77.3298  142.276
145.695  150.933  130.436
159.88  144.553  106.851
48.388  135.553  155.437
135.098  99.7727  138.001
29.6673  73.3662  146.976
19.1885  67.6896  146.671
198.93  133.026  128.262
125.953  89.9816  129.364
22.6043  106.406  143.004
96.5276  147.581  151.192
27.1056  93.6742  119.514
63.767  122.643  109.277
63.6297  141.648  156.155
82.8449  106.508  116.439
182.063  100.703  122.904
86.7108  70.3135  134.888
79.5603  84.5918  169.115
19.7443  78.4288  116.677
166.298  122.715  133.557
179.122  116.819  112.697
72.2208  113.258  107.942
142.275  97.0161  133.014
22.9127  64.6163  144.239
190.953  122.475  165.394
83.5802  124.662  120.899
165.451  87.7478  157.885
132.087  87.1259  112.299
96.0928  120.339  114.768
49.3604  68.9086  134.446
84.3217  117.346  111.488
112.631  76.7451  114.156
117.354  70.7126  103.658
15.7894  119.166  163.996
192.417  121.056  129.357
40.4467  98.4113  126.876
15.5619  85.2964  107.787
13.6  134.694  149.651
173.04  88.1049  120.161
12.0723  117.638  125.85
79.6931  68.6612  113.918
124.338  113.704  136.793
82.9508  94.1947  110.606
75.5365  90.7689  112.343
136.53  114.898  142.105
50.4786  90.2985  138.789
96.2956  136.301  141.61
80.761  73.8485  101.828
180.92  82.5238  122.486
146.386  70.9263  102.871
180.76  95.0943  151.116
124.199  126.171  168.266
46.9139  129.932  144.496
114.22  123.883  148.168
54.3858  132.006  145.947
110.768  61.4087  125.477
7.81453  125.749  136.767
10.698  80.3439  148.59
141.138  81.5536  102.426
96.9068  91.2374  147.222
34.7662  140.658  113.681
68.7837  127.713  121.042
177.722  65.9511  143.758
38.2794  72.3133  166.493
186.407  80.3906  149.153
33.4098  111.646  161.762
34.4819  78.3423  146.804
199.282  117.874  158.182
20.5017  84.6801  104.408
40.7185  89.7969  133.979
42.9709  149.349  117.586
21.5558  142.307  117.444
178.353  74.4529  159.925
58.5343  88.0736  154.051
100.599  65.4015  109.958
83.8138  75.4256  133.454
55.5187  126.672  162.769
172.514  140.38  141.503
124.672  77.4252  101.342
190.814  92.0876  166.16
10.6089  118.13  112.137
170.646  111.117  121.572
157.216  120.018  137.405
80.0543  101.055  133.696
68.7884  119.223  108.549
177.744  148.056  150.19
4.80136  106.434  136.467
78.8747  97.3691  118.757
143.827  87.6615  143.628
149.739  80.5678  153.996
189.184  110.12  149.521
116.158  138.177  103.053
47.879  64.654  143.414
51.9545  71.9875  150.894
110.979  126.99  164.676
62.4085  63.8234  160.741
141.429  94.1792  114.806
36.0921  145.814  158.815
136.89  91.925  120.408
90.4784  106.439  131.973
179.95  90.506  166.176
28.3255  106.249  159.297
177.836  61.4634  122.02
57.3122  138.788  129.968
153.398  130.909  109.715
184.134  121.981  122.879
53.4197  86.9974  114.417
7.47979  101.398  153.157
35.426  71.8017  145.717
24.7534  103.572  123.852
159.276  131.572  130.604
189.769  100.875  160.681
68.3977  139.716  166.791
101.934  134.955  155.226
138.728  127.783  131.069
133.413  120.329  122.952
124.196  124.181  119.252
119.239  100.336  141.572
111.895  149.15  134.676
70.486  105.937  150.144
25.4963  141.702  135.518
111.445  146.821  154.163
120.678  64.6539  110.909
57.9526  69.2386  126.223
85.197  103.987  134.389
62.4753  127.971  112.251
34.9375  81.8484  161.096
141.492  66.4032  150.335
67.3238  123.881  150.386
45.7568  76.4468  102.936
146.475  139.83  138.421
132.584  88.7317  144.084
145.679  89.9596  114.507
45.4061  75.9459  119.749
111.233  124.588  137.291
187.29  88.9776  144.027
72.5269  69.4608  146.575
144.992  150.977  136.884
143.453  114.838  132.375
9.51061  88.4319  116.302
30.6098  129.842  102.914
40.3734  100.584  132.849
101.637  126.999  119.981
159.513  76.9372  150.437
157.069  129.386  104.91
35.3103  132.753  167.072
137.647  108.179  159.706
191.495  90.9966  159.36
35.5044  60.7665  121.511
29.1032  102.012  104.898
190.593  84.906  158.669
183.838  119.82  148.843
133.938  149.38  124.105
177.62  80.66  162.537
17.7307  83.4541  114.557
156.206  59.5561  121.357
133.914  82.8849  157.411
173.526  90.15  133.096
17.1296  101.065  104.153
95.7589  73.0749  128.459
69.0327  91.397  160.994
6.54577  98.2679  121.022
125.168  91.7667  112.449
133.205  100.329  112.685
13.3795  87.3322  128.563
183.418  116.774  108.149
129.077  77.6821  124.555
63.2894  124.584  130.96
195.22  98.4795  113.649
143.173  95.1604  140.628
119.847  99.6748  120.62
125.764  66.1691  162.317
29.2942  148.911  135.911
160.251  146.621  132.68
170.701  75.7052  144.471
153.368  128.402  152.237
119.097  133.189  130.923
29.2849  109.315  165.076
44.0646  133.846  130.525
179.251  131.627  143.613
122.109  127.08  132.514
116.429  66.7263  107.49
111.896  130.992  123.229
49.4911  135.447  144.928
190.513  97.7649  154.409
179.475  96.7722  164.724
194.524  119.936  155.651
26.8062  93.875  160.552
140.435  142.528  164.846
22.1986  69.382  113.121
63.347  76.6667  119.627
193.843  129.881  147.695
90.1125  83.1282  134.021
188.098  131.366  126.601
170.943  107.189  146.291
192.348  101.773  109.349
171.76  96.5324  154.675
176.923  148.941  122.811
33.8457  98.6471  142.103
23.6117  84.0386  114.789
176.701  104.681  124.096
164.075  63.3219  140.827
186.876  130.084  104.417
117.972  131.881  141.972
189.538  118.007  103.408
147.075  135.643  157.221
129.908  99.3331  118.559
97.4253  137.302  124.898
57.2628  127.464  116.887
76.8299  67.0272  150.085
178.664  86.7923  130.799
134.628  78.2876  168.977
32.3749  72.8687  110.077
173.566  135.766  126.768
136.229  125.407  118.834
123.411  77.191  168.536
154.287  65.4002  148.817
74.0159  81.3784  133.527
58.8029  85.9528  110.146
34.265  66.0177  141.925
160.479  62.0554  157.542
158.712  151.395  128.22
117.014  84.8451  165.152
82.2995  99.4194  152.341
42.8485  133.121  161.966
73.5139  93.0047  118.572
67.5971  146.594  110.744
170.904  145.302  135.078
152.677  141.018  166.193
109.352  82.6871  116.724
142.968  76.2351  136.199
143.846  122.509  141.291
188.164  138.191  145.615
165.023  124.16  127.82
92.9147  69.058  150.446
99.3708  127.461  165.014
165.452  65.7851  119.174
32.0332  136.645  121.058
88.8349  91.6837  126.614
169.258  71.7877  138.277
5.32649  107.523  126.714
153.273  65.6611  121.999
12.0515  121.111  131.57
95.5045  92.5172  126.79
76.6862  65.3446  137.175
120.326  143.515  127.245
76.2745  86.8475  123.632
30.8817  132.789  150.363
180.927  67.9029  138.296
79.24  117.472  137.205
38.7919  122.709  162.603
72.6474  69.7123  166.383
168.429  70.4687  145.831
134.288  82.6963  107.111
33.6408  126.978  166.598
16.6894  78.7275  160.021
75.9756  79.0404  152.834
23.0037  83.2927  160.758
127.526  77.9595  146.499
76.1324  81.4113  128.02
176.436  65.2005  159.348
92.2735  71.8104  123.691
167.179  131.583  103.345
143.283  145.196  138.571
161.081  145.4  147.582
186.803  79.7134  104.508
189.276  109.757  127.773
189.937  87.4033  123.688
171.078  101.53  122.703
42.1511  59.619  122.62
108.239  83.6497  124.401
56.9785  71.0097  146.728
10.5852  114.47  131.43
162.323  86.5958  111.994
65.424  64.8699  131.052
142.147  82.6356  140.359
22.3592  94.2769  167.066
121.293  118.193  133.597
25.089  128.909  103.473
195.839  123.984  160.919
121.587  78.3335  134.9
140.471  69.722  103.53
26.223  134.657  130.208
164.191  69.7319  125.842
163.272  74.2571  136.894
175.417  76.0047  166.991
33.5612  111.292  120.425
37.3802  89.2746  121.422
101.82  89.0083  150.477
19.0191  120.406  145.739
149.881  59.9906  120.25
166.079  133.518  140.078
23.3737  129.165  165.962
33.9897  108.754  148.705
75.4646  100.302  165.445
135.469  132.856  107.064
53.6042  65.0922  107.067
180.043  127.215  156.596
59.7439  67.0123  155.573
65.0278  144.865  144.588
88.1323  132.098  112.867
115.955  133.556  167.781
169.763  127.393  123.637
153.743  135.731  131.174
123.779  86.5763  102.448
51.4389  136.647  137.575
191.851  112.291  103.825
136.808  110.075  107.623
79.5863  105.089  143.669
122.9  149.179  142.192
198.761  118.173  136.124
130.48  116.585  107.182
65.2391  143.758  106.172
184.51  69.0051  127.52
133.452  103.996  118.217
176.828  60.3046  142.063
136.254  129.589  168.722
174.554  126.195  118.881
71.3064  104.153  114.905
183.5  65.6234  115.195
97.3283  84.8608  148.361
66.0856  142.045  133.935
57.3057  142.307  156.406
146.846  137.478  167.584
112.194  78.6681  120.419
150.671  134.543  162.388
114.207  127.576  113.027
119.507  106.673  131.854
87.8308  114.001  108.007
113.47  84.7901  121.667
168.146  87.6584  142.989
130.495  112.611  133.196
13.9638  98.9811  155.861
121.263  68.0294  128.293
17.2378  71.9279  116.855
175.012  90.9313  115.329
62.383  68.0666  112.476
101.3  148.922  140.556
118.516  72.8762  167.358
10.9631  111.151  125.976
18.4937  114.903  148.766
110.234  76.2022  108.027
179.45  81.1038  129.028
105.985  68.5646  152.802
72.6589  118.312  165.156
90.5321  121.957  149.052
94.8008  69.7348  156.079
156.06  68.1921  112.017
144.206  149.678  120.721
40.7249  76.1324  144.993
131.335  94.0046  167.836
89.5032  106.833  150.23
47.1339  70.076  123.769
148.531  74.8589  156.202
85.1236  143.733  132.982
89.3012  136.256  153.081
93.1775  125.801  145.287
170.439  137.665  148.705
54.6729  132.594  133.295
60.6336  78.4898  167.188
21.7382  74.8772  107.697
153.485  78.9331  133.583
119.101  100.628  131.475
130.859  62.8077  114.687
164.75  80.3628  127.694
192.194  127.986  106.986
186.524  102.064  108.652
136.133  79.6546  101.187
46.7399  64.2422  124.617
185.038  71.9991  162.38
41.4746  133.675  167.102
51.1643  142.006  156.395
173.104  150.652  138.467
16.5419  109.079  165.539
69.9604  87.4561  120.264
68.783  65.6649  122.033
169.527  77.046  167.042
182.969  134.474  104.556
84.5399  112.393  151.436
37.1719  145.181  109.739
155.283  138.84  118.892
166.769  140.351  125.815
197.064  112.2  117.84
180.294  110.64  140.94
165.493  116.625  131.409
162.739  67.0631  105.479
26.8084  97.2893  166.492
50.7131  73.2902  102.692
7.98329  124.86  142.95
51.5707  62.1656  112.116
193.646  87.8411  144.416
142.625  118.284  157.118
187.667  137.644  123.226
118.797  113.35  120.564
33.01  80.5604  167.063
201.626  122.217  120.718
120.179  109.038  149.888
192.114  79.9346  107.911
137.845  144.415  135.652
30.447  116.55  157.847
92.6161  74.7112  146.178
57.6076  142.182  165.469
15.268  139.926  133.355
23.2708  130.655  142.153
76.2788  129.021  163.657
190.88  133.398  142.999
17.983  137.847  115.001
156.172  79.4663  121.543
19.1369  74.2345  138.318
172.433  75.8811  161.922
178.049  132.69  108.432
185.232  94.5441  108.174
94.8442  125.417  151.96
19.6227  72.8426  133.016
179.226  76.1726  108.923
15.8715  104.755  110.697
51.7581  131.119  139.902
188.229  93.1447  127.077
81.4428  116.151  102.186
183.215  101.063  166.293
149.046  125.769  119.689
109.481  143.128  142.268
166.423  137.454  103.057
98.3665  80.1502  160.62
183.116  119.883  103.041
63.2164  138.099  118.013
200.489  95.551  112.958
31.1264  99.2745  163.887
50.4909  144.753  120.781
17.4596  95.6537  152.919
24.7686  77.3269  159.271
73.3718  69.0121  116.672
179.931  122.791  152.82
147.119  78.7506  118.278
88.827  68.3054  105.394
67.2333  134.13  120.382
150.731  90.5914  134.667
186.926  118.15  135.952
138.405  78.8679  107.363
81.5248  100.565  102.841
52.8819  63.8552  132.112
12.1233  135.486  136.392
174.601  145.127  130.753
158.141  70.9541  152.536
69.6423  75.1795  118.417
86.5693  83.9752  115.253
99.8049  82.1469  114.029
101.968  90.0011  144.232
85.3293  131.122  150.661
94.0411  144.485  109.488
36.3203  116.611  126.248
154.852  64.834  127.481
138.665  73.8743  162.555
8.74637  118.591  153.286
128.841  118.147  133.999
133.753  148.845  149.232
48.6907  88.6462  117.968
125.901  99.3966  154.869
21.9601  104.459  107.998
156.959  139.628  109.277
63.309  77.9008  151.076
147.87  65.9287  150.723
105.094  77.8729  128.947
79.3466  80.3543  148.17
135.299  111.06  129.998
130.106  129.361  106.174
103.38  66.9235  135.481
151.649  67.1317  116.585
128.244  128.484  129.899
130.23  72.8655  120.138
109.137  125.743  144.131
119.52  86.9981  119.763
104.208  125.762  140.749
100.421  79.0519  149.049
80.2725  121.947  114.928
51.3297  77.071  119.713
119.537  119.28  161.941
85.0935  80.9661  137.097
125.181  126.928  106.85
91.7705  71.3857  110.436
105.415  122.872  156.709
190.878  126.233  141.84
139.032  106.773  116.041
165.739  131.154  109.534
124.636  60.5466  131.109
118.61  81.2022  140.162
132.178  132.851  148.431
9.6728  130.818  133.518
179.076  85.4181  153.553
191.244  142.955  129.015
121.771  102.685  157.295
21.8159  88.0482  166.549
41.8376  116.808  119.354
39.1437  95.3448  116.159
83.5974  149.523  130.701
195.376  129.714  140.999
28.1773  127.954  124.982
129.281  139.201  133.853
132.489  131.604  164.21
139.43  65.2002  107.847
192.456  81.3452  162.478
186.867  104.658  149.478
128.745  146.427  157.281
24.5082  124.015  142.102
147.385  119.351  121.184
107.862  145.331  158.434
67.608  70.5382  133.854
191.503  128.466  115.82
193.217  70.9846  149.875
118.244  126.872  121.698
152.885  141.294  130.1
39.7064  70.3197  110.108
72.2938  130.838  107.026
140.879  82.7662  134.832
172.658  74.7428  126.589
31.2695  118.491  104.674
175.188  70.8786  111.038
6.12409  104.814  121.428
185.356  137.39  151.357
27.3021  124.027  119.539
160.43  79.2173  131.97
126.486  121.774  146.176
124.36  90.2054  118.875
35.9405  117.971  108.314
126.973  119.029  124.279
130.188  83.5164  131.012
196.108  132.606  115.983
16.626  132.642  133.79
35.3848  71.5148  130.456
167.327  114.887  138.561
13.4142  119.338  149.024
190.106  143.871  140.994
196.541  123.313  125.194
45.8149  124.554  109.316
72.125  65.3907  142.029
7.89656  125.489  129.893
169.191  150.797  143.471
23.6941  110.565  108.245
133.157  122.278  168.375
79.9046  148.417  150.232
23.8399  75.94  113.326
139.8  120.161  146.028
176.567  137.043  111.054
36.6978  122.98  136.505
124.219  77.2615  157.384
86.8033  100.532  161.832
118.908  90.4208  161.523
29.8016  117.843  129.122
47.8677  150.464  121.438
44.4407  138.805  151.702
74.679  125.404  153.494
59.6338  70.9499  161.449
34.0026  124.803  142.704
12.0469  92.8327  127.868
170.701  136.126  155.409
188.038  133.285  163.607
10.9892  114.196  140.405
144.013  93.5652  146.804
176.229  76.5243  103.006
121.065  122.93  150.22
106.439  125.928  107.253
117.579  94.2663  119.944
125.479  66.847  144.895
26.3856  114.732  152.994
61.2843  120.731  152.646
44.27  65.5304  119.049
34.1203  103.031  125.152
79.2889  60.673  125.354
79.7738  116.874  118.355
141.312  138.725  134.573
181.119  148.483  128.538
125.817  69.6871  112.184
54.6363  79.5125  158.603
181.256  77.9393  166.609
26.8365  84.3489  146.403
62.9591  61.5611  155.291
173.068  71.9175  103.731
182.911  105.953  121.227
82.523  137.92  130.282
162.422  58.4105  137.695
44.5389  58.701  128.844
167.838  86.975  121.949
54.4009  75.9143  143.822
119.581  60.8264  129.375
125.342  107.121  126.574
91.2359  97.9696  145.781
46.2284  139.237  135.115
44.0321  117.429  146.585
114.967  74.6014  155.206
125.039  72.9754  123.728
141.065  77.0271  113.385
26.399  129.342  108.971
145.289  131.355  102.418
181.195  97.2902  145.003
126.953  61.7092  120.043
70.4388  143.916  124.025
152.942  72.6177  167.425
106.372  66.318  141.126
151.235  59.0812  125.812
188.796  98.5283  137.779
39.7808  121.031  143.127
40.1769  143.845  117.67
119.814  136.215  151.837
143.558  143.581  150.261
135.108  106.533  134.452
39.7572  128.661  134.188
12.7476  88.6844  134.55
116.301  77.0215  107.526
170.261  142.816  153.109
138.705  77.2353  140.576
172.285  59.9922  123.793
128.548  149.635  139.436
86.2271  119.195  153.186
97.7817  85.8656  127.142
171.07  150.326  124.764
92.1311  138.048  167.003
97.9808  61.2469  126.876
73.7439  114.756  122.754
99.5725  119.89  147.515
176.769  59.9515  134.073
151.746  83.8366  107.168
61.3665  70.1995  131.358
184.878  107.974  131.614
78.1056  71.3101  125.362
29.2019  103.354  133.671
52.7789  145.553  140.587
127.725  98.4475  167.067
79.7189  111.334  146.564
83.9862  79.1637  101.052
39.9307  85.2591  114.821
176.676  71.8752  147.316
30.682  111.169  132.509
98.9244  131.467  150.557
53.9687  143.891  115.896
78.5736  91.1632  101.863
185.246  126.209  114.342
158.694  86.4726  157.097
127.182  104.737  115.132
42.7148  74.935  125.524
139.958  86.5543  118.831
170.134  71.341  166.36
59.5606  86.0969  159.939
140.367  87.0364  104.607
186.168  91.4629  138.376
119.351  109.894  126.312
74.5367  76.1912  125.236
57.0526  58.5917  131.378
160.192  77.6822  160.899
131.336  71.2711  126.544
122.841  128.924  162.203
90.9002  133.846  107.238
131.752  89.3147  156.99
193.501  115.405  139.057
129.182  128.115  117.678
82.5278  85.4201  119.869
126.935  84.8558  143.686
143.27  65.1278  143.956
149.409  149.502  151.934
65.2513  135.222  151.736
69.387  110.194  124.313
101.484  127.314  154.077
146.694  81.5199  159.242
114.806  87.9691  109.615
165.978  77.2511  108.815
141.968  121.924  129.513
67.3615  94.7717  122.339
165.186  120.531  154.058
77.9434  131.979  106.461
23.1801  125.852  153.194
118.488  97.3728  125.819
199.654  122.515  114.786
185.473  91.3581  113.897
37.2348  106.148  116.999
86.1344  78.1151  163.8
164.649  136.636  108.122
154.75  80.2995  140.148
114  124.122  107.049
170.788  106.442  125.996
73.1691  138.413  145.101
95.714  149.083  131.099
13.4022  105.519  153.949
104.973  67.28  123.207
19.5836  117.121  136.299
88.8102  127.821  161.944
93.6707  72.3916  102.896
74.9694  108.718  105.266
140.304  59.6073  128.869
26.0025  140.034  148.636
43.0324  58.6971  139.903
134.49  140.869  165.892
137.086  81.7042  162.904
41.0461  120.026  157.929
121.664  89.5249  145.851
172.235  134.038  102.895
118.22  78.7855  156.359
79.1482  80.4964  122.561
150.815  119.522  137.386
126.4  68.1247  118.243
112.63  91.1928  146.22
75.4597  107.292  119.076
71.4555  73.8527  107.137
175.363  86.8773  165.125
71.5161  139.738  134.892
108.76  81.4883  104.465
40.4459  112.504  146.394
153.44  69.4573  137.206
125.843  72.3067  129.982
157.971  79.9759  165.585
33.9901  104.873  142.924
12.4225  101.962  107.694
83.4652  122.356  101.817
119.891  126.718  109.798
114.838  137.485  161.532
182.27  96.3786  138.42
75.4578  59.9916  130.289
187.391  124.21  103.459
69.2156  145.64  137.855
115.339  121.02  110.999
105.648  126.493  124.077
157.175  87.6717  116.518
140.002  125.63  160.384
150.382  89.0888  118.908
134.731  150.004  129.91
147.475  82.597  125.348
172.44  59.2325  138.005
21.1663  112.416  132.22
64.2989  122.907  161.605
182.064  112.078  135.076
49.8616  123.235  113.261
129.542  97.7681  140.914
29.5228  118.328  109.802
65.0326  81.5593  140.236
154.613  146.279  137.976
188.078  67.6164  153.004
104.267  125.191  129.52
94.0891  79.5369  150.526
65.7016  80.5077  102.78
132.228  92.6224  139.265
68.3374  63.6471  159.67
77.3355  144.764  108.558
154.169  126.997  122.262
30.3675  125.887  150.347
42.7663  135.46  108.246
8.08807  115.382  116.874
78.5524  133.093  130.939
10.5404  93.8384  158.475
31.2548  90.6008  150.43
19.1523  84.8022  138.203
65.4072  70.9111  121.86
36.6491  144.681  130.213
30.7033  114.158  124.573
112.413  91.4851  140.64
78.6537  96.3165  167.619
85.0475  79.898  123.795
32.6552  60.593  143.379
99.4806  124.926  134.771
24.3498  63.1346  136.405
17.2948  109.843  145.316
63.8853  89.1773  156.966
91.6345  71.8504  160.17
56.5916  67.2849  115.909
149.215  131.478  131.022
111.625  69.2862  154.005
173.993  130.436  155.1
80.062  131.079  121.57
40.0281  141.437  105.055
129.482  125.636  141.686
77.3304  102.233  119.699
88.8482  126.291  139.703
119.415  99.6091  146.999
64.3398  85.7164  106.675
184.021  86.1118  149.559
122.583  132.939  146.397
22.2914  100.057  143.587
73.8548  113.736  129.277
58.4862  64.3195  129.721
72.6917  119.041  152.961
64.0369  148.657  115.728
123.169  149.484  135.748
74.1497  111.505  136.115
36.7579  73.7064  114.963
142.086  131.882  168.093
95.2702  127.259  157.408
162.497  79.9752  138.77
115.733  138.907  110.017
183.269  97.6754  128.388
55.7257  123.82  111.969
143.161  142.786  105.277
108.762  71.3079  111.061
124.788  122.592  161.696
19.8188  143.707  141.849
138.091  136.891  119.902
180.326  114.092  104.618
50.6884  140.753  166.199
129.082  116.042  146.175
67.065  83.6877  166.23
41.7357  145.674  134.65
138.757  96.1579  109.635
33.7931  100  130.529
157.629  128.779  155.087
118.067  138.099  140.598
20.8001  131.588  106.313
176.226  138.647  146.167
92.7468  62.0154  149.558
102.942  138.811  159.796
41.6649  138.682  125.089
21.0448  88.1646  118.62
168.748  124.234  117.186
195.833  138.453  131.81
102.647  79.504  103.394
85.2542  67.2081  163.652
78.2737  88.517  156.784
54.8511  58.9987  125.364
204.676  101.112  142.559
194.076  69.4372  137.971
16.8756  103.792  146.588
43.8904  71.1178  103.366
45.8954  62.0595  112.808
53.7073  127.286  127.803
87.0483  71.9363  147.473
81.9362  69.8785  158.51
189.923  118.958  160.386
89.8369  143.693  128.114
83.1716  112.245  114.467
199.532  77.4088  135.601
170.35  70.7505  131.233
178.024  128.159  132.07
15.0751  70.2765  136.289
99.5982  136.695  130.667
13.4616  124.29  126.74
197.304  136.25  138.628
188.482  83.0067  110.947
105.685  125.704  162.493
12.2329  135.308  129.766
158.056  133.486  150.563
124.247  145.034  109.924
95.6917  83.8597  164.897
175.155  92.1431  162.668
92.8127  114.543  141.959
34.8314  81.9636  152.64
69.7662  140.53  103.675
172.244  116.861  111.247
135.265  73.8029  101.812
168.765  97.1322  142.203
44.9593  134.979  140.347
136.562  144.56  107.802
56.5542  89.8638  141.48
123.197  111.687  162.668
66.5743  78.4317  167.94
51.1906  145.29  145.984
33.4004  113.187  107.789
68.5306  65.7076  147.769
198.712  107.936  146.223
60.4183  65.2286  148.517
74.9029  140.71  166.054
106.323  79.4806  151.541
135.184  104.875  127.365
120.709  103.584  151.407
23.9754  134.51  164.109
120.946  114.385  110.35
185.126  120.729  142.623
72.9393  70.4403  136.831
160.466  139.616  103.371
181.163  103.507  128.764
74.9729  109.148  142.631
134.148  136.71  101.948
89.5837  106.909  120.106
195.241  101.752  156.954
128.519  146.939  114.273
97.9725  118.49  135.406
35.7117  126.797  130.027
35.798  65.2539  109.578
46.7855  128.646  105.18
64.718  72.4924  108.199
139.342  84.9306  110.682
38.0321  83.5831  137.833
152.04  74.5403  114.69
146.994  133.135  107.395
35.9645  124.855  111.275
193.518  99.1546  125.127
20.5474  93.2968  121.647
78.5509  136.202  101.801
118.601  75.9857  101.985
48.4008  126.177  149.249
120.513  114.86  158.833
171.583  145.028  124.686
65.7249  80.0133  161.248
47.4082  118.523  130.777
141.862  112.468  138.212
123.621  127.191  142.647
121.056  77.9527  162.971
199.728  78.7354  142.356
61.3553  151.251  132.592
128.323  110.784  115.106
199.498  112.748  130.729
66.7359  129.807  147.265
141.085  79.286  119.682
91.0222  121.025  142.531
67.5572  136.912  146.329
186.318  146.189  128.652
62.2951  118.338  135.941
142.214  86.3518  149.768
152.154  142.483  154.46
71.2539  90.9011  146.001
182.368  75.7898  104.172
20.4199  138.457  137.456
105.361  86.8848  112.626
91.5309  97.5014  126.483
192.954  95.8766  104.488
97.3367  131.374  121.199
122.872  73.617  117.048
21.5542  132.466  154.921
126.155  73.2473  135.729
147.565  131.786  153.065
62.4228  80.0141  109.253
189.612  103.298  121.242
195.892  108.035  156.698
108.128  132.033  146.188
200.539  127.689  123.834
80.0285  149.21  124.799
111.39  138.327  166.668
180.427  61.0794  138.23
82.5586  94.1916  148.09
126.191  116.458  152.726
35.5474  66.0717  161.414
104.191  74.8678  108.163
133.036  62.8766  155.951
182.859  147.104  146.536
185.266  111.041  161.252
29.783  122.005  139.363
137.911  123.665  167.006
82.3385  66.165  139.354
164.807  138.039  151.38
86.9924  84.0675  102.138
7.505  91.9417  120.698
41.6533  87.1015  125.857
122.26  108.219  110.921
51.5507  128.782  155.211
194.777  135.18  153.426
66.6713  81.8272  121.08
104.398  133.866  133.64
87.1134  73.334  102.276
42.4801  92.8879  149.778
4.89687  103.396  131.395
69.6696  114.934  157.139
113.039  71.0825  159.928
11.1889  102.153  143.607
167.383  95.4783  130.992
43.2227  85.907  119.82
97.3076  61.1467  142.402
57.3826  75.4966  102.481
25.2124  89.242  123.735
37.5445  127.992  123.345
118.17  97.5673  136.645
13.5547  86.8683  147.453
186.087  141.268  157.839
67.0657  114.193  135.58
47.0023  58.376  135.122
9.51886  79.5514  136.262
18.5334  133.582  139.283
143.372  144.985  132.437
40.6555  74.9681  131.083
185.97  107.693  114.935
202.434  100.32  116.772
173.832  81.388  103.387
48.2693  81.3246  105.431
83.4921  111.69  103.571
166.747  92.3498  120.91
137.288  129.26  113.229
43.3293  76.1493  108.138
183.158  119.313  155.807
119.329  131.22  156.969
131.493  132.907  138.097
93.6139  115.309  136.453
83.5118  98.7627  166.458
23.9437  125.456  114.758
135.108  96.1452  116.861
172.279  121.92  107.248
175.889  77.9797  146.655
90.5383  109.596  125.83
34.1776  125.475  160.248
36.1513  95.0651  110.394
137.062  61.6711  117.237
41.6866  140.53  139.016
178.67  118.436  144.031
49.1977  144.668  127.009
25.7918  122.877  102.92
7.56449  108.537  116.57
166.937  74.9261  125.749
67.078  124.383  115.588
204.44  115.924  135.061
186.003  85.1242  155.241
186.234  118.547  167.055
181.147  139.114  155.648
95.8846  145.743  157.665
155.363  72.798  120.085
139.647  150.407  139.994
72.5452  150.368  134.877
54.2724  64.519  145.255
144.33  72.1223  152.445
